# .PCD v0.7 - Point Cloud Data file format
VERSION 0.7
FIELDS x y z
SIZE 4 4 4
TYPE F F F
COUNT 1 1 1
WIDTH 1479
HEIGHT 1
VIEWPOINT 0 0 0 0 1 0 0
POINTS 1479
DATA ascii
0.26104 0.071635 0.86747003
0.26194 0.071635 0.86747003
0.26282999 0.071635 0.86747003
0.26390001 0.071679004 0.86800998
0.26480001 0.071679004 0.86800998
0.26570001 0.071679004 0.86800998
0.26642999 0.071635 0.86747003
0.26699999 0.071544997 0.86637998
0.26806 0.071589999 0.86691999
0.26879999 0.071544997 0.86637998
0.26969001 0.071544997 0.86637998
0.27042001 0.071501002 0.86584002
0.27149001 0.071544997 0.86637998
0.27256 0.071589999 0.86691999
0.27346 0.071589999 0.86691999
0.27419001 0.071544997 0.86637998
0.27508 0.071544997 0.86637998
0.27598 0.071544997 0.86637998
0.27688 0.071544997 0.86637998
0.27778 0.071544997 0.86637998
-0.16102999 0.071419999 0.85413998
-0.16013999 0.071419999 0.85413998
-0.15934999 0.071462996 0.85465997
-0.15847 0.071462996 0.85465997
-0.15748 0.071419999 0.85413998
-0.1566 0.071419999 0.85413998
-0.15571 0.071419999 0.85413998
-0.15492 0.071462996 0.85465997
-0.15394001 0.071419999 0.85413998
-0.15315001 0.071462996 0.85465997
-0.15226001 0.071462996 0.85465997
-0.15138 0.071462996 0.85465997
-0.15049 0.071462996 0.85465997
-0.14961 0.071462996 0.85465997
-0.14872 0.071462996 0.85465997
-0.14782999 0.071462996 0.85465997
-0.14695001 0.071462996 0.85465997
-0.14597 0.071419999 0.85413998
-0.145 0.071376003 0.85360998
-0.14410999 0.071376003 0.85360998
-0.14323001 0.071376003 0.85360998
-0.14225 0.071332 0.85308999
-0.14137 0.071332 0.85308999
-0.14057 0.071376003 0.85360998
-0.13951001 0.071287997 0.85255998
-0.13863 0.071287997 0.85255998
-0.13766 0.071244001 0.85203999
-0.13677999 0.071244001 0.85203999
-0.13589001 0.071244001 0.85203999
-0.13501 0.071244001 0.85203999
-0.13413 0.071244001 0.85203999
-0.13324 0.071244001 0.85203999
-0.13244 0.071287997 0.85255998
-0.13156 0.071287997 0.85255998
-0.13059001 0.071244001 0.85203999
-0.12971 0.071244001 0.85203999
-0.12898 0.071332 0.85308999
-0.12802 0.071287997 0.85255998
-0.12714 0.071287997 0.85255998
-0.12640999 0.071376003 0.85360998
-0.12552001 0.071376003 0.85360998
-0.12487 0.071506999 0.85518998
-0.12406 0.071551003 0.85571003
-0.12317 0.071551003 0.85571003
-0.12221 0.071506999 0.85518998
-0.12125 0.071462996 0.85465997
-0.12043 0.071506999 0.85518998
-0.1194 0.071419999 0.85413998
-0.11851 0.071419999 0.85413998
-0.11777 0.071506999 0.85518998
-0.11689 0.071506999 0.85518998
-0.116 0.071506999 0.85518998
-0.11504 0.071462996 0.85465997
-0.11408 0.071419999 0.85413998
-0.1132 0.071419999 0.85413998
-0.11224 0.071376003 0.85360998
-0.11129 0.071332 0.85308999
-0.11041 0.071332 0.85308999
-0.10945 0.071287997 0.85255998
-0.10864 0.071332 0.85308999
-0.10782 0.071376003 0.85360998
-0.10687 0.071332 0.85308999
-0.10611 0.071419999 0.85413998
-0.10529 0.071462996 0.85465997
-0.10434 0.071419999 0.85413998
-0.10352 0.071462996 0.85465997
-0.10263 0.071462996 0.85465997
-0.10175 0.071462996 0.85465997
-0.10092 0.071506999 0.85518998
-0.1001 0.071551003 0.85571003
-0.099211 0.071551003 0.85571003
-0.098324001 0.071551003 0.85571003
-0.095661998 0.071551003 0.85571003
-0.091169 0.071506999 0.85518998
-0.090171002 0.071419999 0.85413998
-0.089340001 0.071462996 0.85465997
-0.088399999 0.071419999 0.85413998
-0.087513998 0.071419999 0.85413998
-0.086681001 0.071462996 0.85465997
-0.085795 0.071462996 0.85465997
-0.084960997 0.071506999 0.85518998
-0.084073998 0.071506999 0.85518998
-0.083187997 0.071506999 0.85518998
-0.082350999 0.071551003 0.85571003
-0.081413999 0.071506999 0.85518998
-0.080577001 0.071551003 0.85571003
-0.079787999 0.07164 0.85676998
-0.078899004 0.07164 0.85676998
-0.078010999 0.07164 0.85676998
-0.077218004 0.071727999 0.85782999
-0.076375 0.071772002 0.85835999
-0.075531997 0.071817003 0.85889
-0.074594997 0.071772002 0.85835999
-0.073659003 0.071727999 0.85782999
-0.07277 0.071727999 0.85782999
-0.071879998 0.071727999 0.85782999
-0.070991002 0.071727999 0.85782999
-0.070145003 0.071772002 0.85835999
-0.069211997 0.071727999 0.85782999
-0.068364002 0.071772002 0.85835999
-0.067433 0.071727999 0.85782999
-0.066501997 0.071684003 0.85729998
-0.065613002 0.071684003 0.85729998
-0.064723998 0.071684003 0.85729998
-0.063795999 0.07164 0.85676998
-0.062907003 0.07164 0.85676998
-0.061981 0.071595997 0.85623997
-0.061092999 0.071595997 0.85623997
-0.060205001 0.071595997 0.85623997
-0.059280999 0.071551003 0.85571003
-0.058357 0.071506999 0.85518998
-0.057471 0.071506999 0.85518998
-0.056584001 0.071506999 0.85518998
-0.055697002 0.071506999 0.85518998
-0.054809999 0.071506999 0.85518998
-0.053923 0.071506999 0.85518998
-0.053068999 0.071551003 0.85571003
-0.05215 0.071506999 0.85518998
-0.051263001 0.071506999 0.85518998
-0.050376002 0.071506999 0.85518998
-0.049520001 0.071551003 0.85571003
-0.048633002 0.071551003 0.85571003
-0.047775 0.071595997 0.85623997
-0.046916001 0.07164 0.85676998
-0.046027001 0.07164 0.85676998
-0.045166999 0.071684003 0.85729998
-0.044278 0.071684003 0.85729998
-0.043389 0.071684003 0.85729998
-0.0425 0.071684003 0.85729998
-0.041611001 0.071684003 0.85729998
-0.040722001 0.071684003 0.85729998
-0.039808001 0.07164 0.85676998
-0.038968001 0.071727999 0.85782999
-0.038054999 0.071684003 0.85729998
-0.037188999 0.071727999 0.85782999
-0.036277 0.071684003 0.85729998
-0.035409998 0.071727999 0.85782999
-0.03452 0.071727999 0.85782999
-0.033631001 0.071727999 0.85782999
-0.032740999 0.071727999 0.85782999
-0.031831998 0.071684003 0.85729998
-0.030924 0.07164 0.85676998
-0.030035 0.07164 0.85676998
-0.029129 0.071595997 0.85623997
-0.028240999 0.071595997 0.85623997
-0.027353 0.071595997 0.85623997
-0.026481999 0.07164 0.85676998
-0.025593 0.07164 0.85676998
-0.023831001 0.071684003 0.85729998
-0.022941999 0.071684003 0.85729998
-0.022066999 0.071727999 0.85782999
-0.021176999 0.071727999 0.85782999
-0.020288 0.071727999 0.85782999
-0.019398 0.071727999 0.85782999
-0.018519999 0.071772002 0.85835999
-0.017641 0.071817003 0.85889
-0.01675 0.071817003 0.85889
-0.015869001 0.071860999 0.85942
-0.014978 0.071860999 0.85942
-0.014096 0.071906 0.85995001
-0.013204 0.071906 0.85995001
-0.012312 0.071906 0.85995001
-0.011421 0.071906 0.85995001
-0.010529 0.071906 0.85995001
-0.009637 0.071906 0.85995001
-0.0087452997 0.071906 0.85995001
-0.0078536002 0.071906 0.85995001
-0.0069662002 0.071950004 0.86048001
-0.0060700998 0.071906 0.85995001
-0.0051815999 0.071950004 0.86048001
-0.0042893002 0.071950004 0.86048001
0.1576 0.072129004 0.86262
0.1586 0.072173998 0.86316001
0.15939 0.072129004 0.86262
0.16019 0.072084002 0.86207998
0.16108 0.072084002 0.86207998
0.16198 0.072084002 0.86207998
0.16287 0.072084002 0.86207998
0.16376001 0.072084002 0.86207998
0.16466001 0.072084002 0.86207998
0.16545001 0.072039001 0.86154997
0.16644999 0.072084002 0.86207998
0.16744 0.072129004 0.86262
0.16823 0.072084002 0.86207998
0.16913 0.072084002 0.86207998
0.17013 0.072129004 0.86262
0.17092 0.072084002 0.86207998
0.17181 0.072084002 0.86207998
0.1727 0.072084002 0.86207998
0.1736 0.072084002 0.86207998
0.17460001 0.072129004 0.86262
0.17539001 0.072084002 0.86207998
0.17628001 0.072084002 0.86207998
0.17738999 0.072173998 0.86316001
0.17828999 0.072173998 0.86316001
0.17918 0.072173998 0.86316001
0.17997 0.072129004 0.86262
0.18086 0.072129004 0.86262
0.18164 0.072084002 0.86207998
0.18242 0.072039001 0.86154997
0.18343 0.072084002 0.86207998
0.18433 0.072084002 0.86207998
0.18499 0.071994998 0.86102003
0.186 0.072039001 0.86154997
0.18689001 0.072039001 0.86154997
0.18777999 0.072039001 0.86154997
0.18878999 0.072084002 0.86207998
0.18968999 0.072084002 0.86207998
0.19046 0.072039001 0.86154997
0.19124 0.071994998 0.86102003
0.19237 0.072084002 0.86207998
0.19314 0.072039001 0.86154997
0.19404 0.072039001 0.86154997
0.19505 0.072084002 0.86207998
0.19607 0.072129004 0.86262
0.19696 0.072129004 0.86262
0.1981 0.072218999 0.86369002
0.19912 0.072263002 0.86422998
0.20014 0.072307996 0.86477
0.20104 0.072307996 0.86477
0.20194 0.072307996 0.86477
0.20283 0.072307996 0.86477
0.20373 0.072307996 0.86477
0.20475 0.072352998 0.8653
0.20565 0.072352998 0.8653
0.20642 0.072307996 0.86477
0.20745 0.072352998 0.8653
0.20834 0.072352998 0.8653
0.20911001 0.072307996 0.86477
0.21001001 0.072307996 0.86477
0.21089999 0.072307996 0.86477
0.21167 0.072263002 0.86422998
0.21256 0.072263002 0.86422998
0.21333 0.072218999 0.86369002
0.21422 0.072218999 0.86369002
0.21512 0.072218999 0.86369002
0.21588001 0.072173998 0.86316001
0.21678001 0.072173998 0.86316001
0.21754 0.072129004 0.86262
0.21843 0.072129004 0.86262
0.21933 0.072129004 0.86262
0.22036 0.072173998 0.86316001
0.22138999 0.072218999 0.86369002
0.22228 0.072218999 0.86369002
0.22332001 0.072263002 0.86422998
0.22435001 0.072307996 0.86477
0.22510999 0.072263002 0.86422998
0.22615001 0.072307996 0.86477
0.22719 0.072352998 0.8653
0.22808 0.072352998 0.8653
0.22898 0.072352998 0.8653
0.22988001 0.072352998 0.8653
0.23078001 0.072352998 0.8653
0.23167001 0.072352998 0.8653
0.23257001 0.072352998 0.8653
0.23346999 0.072352998 0.8653
0.23422 0.072307996 0.86477
0.23512 0.072307996 0.86477
0.23601 0.072307996 0.86477
0.23676001 0.072263002 0.86422998
0.23766001 0.072263002 0.86422998
0.23841 0.072218999 0.86369002
0.2393 0.072218999 0.86369002
0.2402 0.072218999 0.86369002
0.24094 0.072173998 0.86316001
0.24184 0.072173998 0.86316001
0.24288 0.072218999 0.86369002
0.24378 0.072218999 0.86369002
0.24451999 0.072173998 0.86316001
0.24557 0.072218999 0.86369002
0.24647 0.072218999 0.86369002
0.24736001 0.072218999 0.86369002
0.24826001 0.072218999 0.86369002
0.24914999 0.072218999 0.86369002
0.2502 0.072263002 0.86422998
0.2511 0.072263002 0.86422998
0.25215 0.072307996 0.86477
0.25321001 0.072352998 0.8653
0.25409999 0.072352998 0.8653
0.25516 0.072398998 0.86584002
0.25606 0.072398998 0.86584002
0.25696 0.072398998 0.86584002
0.25784999 0.072398998 0.86584002
0.25874999 0.072398998 0.86584002
0.25964999 0.072398998 0.86584002
0.26071 0.072443999 0.86637998
0.26144999 0.072398998 0.86584002
0.26234001 0.072398998 0.86584002
0.26324001 0.072398998 0.86584002
0.26396999 0.072352998 0.8653
0.26486999 0.072352998 0.8653
0.26576999 0.072352998 0.8653
0.26633999 0.072263002 0.86422998
0.2674 0.072307996 0.86477
0.26813 0.072263002 0.86422998
0.26901999 0.072263002 0.86422998
0.26975 0.072218999 0.86369002
0.27081999 0.072263002 0.86422998
0.27188 0.072307996 0.86477
0.27294999 0.072352998 0.8653
0.27366999 0.072307996 0.86477
0.27456999 0.072307996 0.86477
0.27564001 0.072352998 0.8653
0.27636001 0.072307996 0.86477
0.27743 0.072352998 0.8653
-0.16073 0.072172001 0.85255998
-0.15985 0.072172001 0.85255998
-0.15906 0.072215997 0.85308999
-0.15818 0.072215997 0.85308999
-0.15719 0.072172001 0.85255998
-0.15631001 0.072172001 0.85255998
-0.15543 0.072172001 0.85255998
-0.15464 0.072215997 0.85308999
-0.15375 0.072215997 0.85308999
-0.15296 0.072260998 0.85360998
-0.15198 0.072215997 0.85308999
-0.15119 0.072260998 0.85360998
-0.15030999 0.072260998 0.85360998
-0.14941999 0.072260998 0.85360998
-0.14854001 0.072260998 0.85360998
-0.14765 0.072260998 0.85360998
-0.14677 0.072260998 0.85360998
-0.14579 0.072215997 0.85308999
-0.14482 0.072172001 0.85255998
-0.14402001 0.072215997 0.85308999
-0.14314 0.072215997 0.85308999
-0.14207999 0.072127998 0.85203999
-0.14119001 0.072127998 0.85203999
-0.14040001 0.072172001 0.85255998
-0.13934 0.072084002 0.85152
-0.13846 0.072084002 0.85152
-0.13758001 0.072084002 0.85152
-0.13661 0.072039999 0.85100001
-0.13573 0.072039999 0.85100001
-0.13484 0.072039999 0.85100001
-0.13395999 0.072039999 0.85100001
-0.13308001 0.072039999 0.85100001
-0.13228001 0.072084002 0.85152
-0.1314 0.072084002 0.85152
-0.13043 0.072039999 0.85100001
-0.12955 0.072039999 0.85100001
-0.12875 0.072084002 0.85152
-0.12778001 0.072039999 0.85100001
-0.1269 0.072039999 0.85100001
-0.12616999 0.072127998 0.85203999
-0.12529001 0.072127998 0.85203999
-0.12464 0.072260998 0.85360998
-0.12383 0.072305001 0.85413998
-0.12294 0.072305001 0.85413998
-0.12198 0.072260998 0.85360998
-0.1211 0.072260998 0.85360998
-0.12021 0.072260998 0.85360998
-0.11925 0.072215997 0.85308999
-0.11837 0.072215997 0.85308999
-0.11756 0.072260998 0.85360998
-0.11667 0.072260998 0.85360998
-0.11579 0.072260998 0.85360998
-0.1149 0.072260998 0.85360998
-0.11394 0.072215997 0.85308999
-0.11306 0.072215997 0.85308999
-0.11211 0.072172001 0.85255998
-0.11122 0.072172001 0.85255998
-0.11027 0.072127998 0.85203999
-0.10939 0.072127998 0.85203999
-0.1085 0.072127998 0.85203999
-0.10769 0.072172001 0.85255998
-0.1068 0.072172001 0.85255998
-0.10598 0.072215997 0.85308999
-0.10516 0.072260998 0.85360998
-0.10428 0.072260998 0.85360998
-0.10339 0.072260998 0.85360998
-0.10251 0.072260998 0.85360998
-0.10169 0.072305001 0.85413998
-0.1008 0.072305001 0.85413998
-0.099913999 0.072305001 0.85413998
-0.099088997 0.072350003 0.85465997
-0.098141998 0.072305001 0.85413998
-0.095544003 0.072350003 0.85465997
-0.094658002 0.072350003 0.85465997
-0.092827998 0.072305001 0.85413998
-0.091999002 0.072350003 0.85465997
-0.091057003 0.072305001 0.85413998
-0.090060003 0.072215997 0.85308999
-0.089230001 0.072260998 0.85360998
-0.088290997 0.072215997 0.85308999
-0.087406002 0.072215997 0.85308999
-0.086575001 0.072260998 0.85360998
-0.085689999 0.072260998 0.85360998
-0.084804997 0.072260998 0.85360998
-0.083919004 0.072260998 0.85360998
-0.082983002 0.072215997 0.85308999
-0.082199998 0.072305001 0.85413998
-0.081263997 0.072260998 0.85360998
-0.080379002 0.072260998 0.85360998
-0.079590999 0.072350003 0.85465997
-0.078704998 0.072350003 0.85465997
-0.077818997 0.072350003 0.85465997
-0.077074997 0.072483003 0.85623997
-0.076233998 0.072527997 0.85676998
-0.075346 0.072527997 0.85676998
-0.074410997 0.072483003 0.85623997
-0.073523 0.072483003 0.85623997
-0.072590999 0.072439 0.85571003
-0.071748003 0.072483003 0.85623997
-0.070903003 0.072527997 0.85676998
-0.070014998 0.072527997 0.85676998
-0.069084004 0.072483003 0.85623997
-0.068237998 0.072527997 0.85676998
-0.06735 0.072527997 0.85676998
-0.066379003 0.072439 0.85571003
-0.065491997 0.072439 0.85571003
-0.064604998 0.072439 0.85571003
-0.063717 0.072439 0.85571003
-0.062790997 0.072393999 0.85518998
-0.061905 0.072393999 0.85518998
-0.06098 0.072350003 0.85465997
-0.060130998 0.072393999 0.85518998
-0.059207998 0.072350003 0.85465997
-0.058286 0.072305001 0.85413998
-0.057399999 0.072305001 0.85413998
-0.056479 0.072260998 0.85360998
-0.055628002 0.072305001 0.85413998
-0.054708999 0.072260998 0.85360998
-0.053824 0.072260998 0.85360998
-0.052971002 0.072305001 0.85413998
-0.052053999 0.072260998 0.85360998
-0.051199999 0.072305001 0.85413998
-0.050283 0.072260998 0.85360998
-0.049428999 0.072305001 0.85413998
-0.048542999 0.072305001 0.85413998
-0.047685999 0.072350003 0.85465997
-0.046799999 0.072350003 0.85465997
-0.045942001 0.072393999 0.85518998
-0.045054998 0.072393999 0.85518998
-0.044195998 0.072439 0.85571003
-0.043308001 0.072439 0.85571003
-0.042394999 0.072393999 0.85518998
-0.041533999 0.072439 0.85571003
-0.040646002 0.072439 0.85571003
-0.039735001 0.072393999 0.85518998
-0.038895998 0.072483003 0.85623997
-0.038008001 0.072483003 0.85623997
-0.037142999 0.072527997 0.85676998
-0.036231998 0.072483003 0.85623997
-0.035365999 0.072527997 0.85676998
-0.034478001 0.072527997 0.85676998
-0.033589002 0.072527997 0.85676998
-0.032701001 0.072527997 0.85676998
-0.031812001 0.072527997 0.85676998
-0.030886 0.072439 0.85571003
-0.029998001 0.072439 0.85571003
-0.029092999 0.072393999 0.85518998
-0.028206 0.072393999 0.85518998
-0.027319999 0.072393999 0.85518998
-0.026449 0.072439 0.85571003
-0.025562 0.072439 0.85571003
-0.02469 0.072483003 0.85623997
-0.023816001 0.072527997 0.85676998
-0.022927999 0.072527997 0.85676998
-0.022039 0.072527997 0.85676998
-0.021151001 0.072527997 0.85676998
-0.020262999 0.072527997 0.85676998
-0.019386001 0.072572999 0.85729998
-0.018509001 0.072618 0.85782999
-0.01763 0.072663002 0.85835999
-0.01674 0.072663002 0.85835999
-0.015860001 0.072706997 0.85889
-0.014969 0.072706997 0.85889
-0.014078 0.072706997 0.85889
-0.013188 0.072706997 0.85889
-0.012305 0.072751999 0.85942
-0.011406 0.072706997 0.85889
-0.010516 0.072706997 0.85889
-0.0096250996 0.072706997 0.85889
-0.0087345 0.072706997 0.85889
-0.0078438995 0.072706997 0.85889
-0.0069531999 0.072706997 0.85889
-0.0060625998 0.072706997 0.85889
-0.0051719998 0.072706997 0.85889
-0.004284 0.072751999 0.85942
-0.0033907001 0.072706997 0.85889
-0.0024985 0.072663002 0.85835999
0.15741 0.072933003 0.86154997
0.1583 0.072933003 0.86154997
0.1592 0.072933003 0.86154997
0.15999 0.072888002 0.86102003
0.16088 0.072888002 0.86102003
0.16178 0.072888002 0.86102003
0.16267 0.072888002 0.86102003
0.16356 0.072888002 0.86102003
0.16445 0.072888002 0.86102003
0.16524 0.072843 0.86048001
0.16624001 0.072888002 0.86102003
0.16723999 0.072933003 0.86154997
0.16802999 0.072888002 0.86102003
0.16892 0.072888002 0.86102003
0.16992 0.072933003 0.86154997
0.1707 0.072888002 0.86102003
0.1716 0.072888002 0.86102003
0.17249 0.072888002 0.86102003
0.17338 0.072888002 0.86102003
0.17438 0.072933003 0.86154997
0.17517 0.072888002 0.86102003
0.17617001 0.072933003 0.86154997
0.17716999 0.072977997 0.86207998
0.17806999 0.072977997 0.86207998
0.17896 0.072977997 0.86207998
0.17974 0.072933003 0.86154997
0.18064 0.072933003 0.86154997
0.18153 0.072933003 0.86154997
0.18231 0.072888002 0.86102003
0.18332 0.072933003 0.86154997
0.18488 0.072843 0.86048001
0.18577 0.072843 0.86048001
0.18678001 0.072888002 0.86102003
0.18754999 0.072843 0.86048001
0.18855999 0.072888002 0.86102003
0.18945 0.072888002 0.86102003
0.19023 0.072843 0.86048001
0.19112 0.072843 0.86048001
0.19213 0.072888002 0.86102003
0.19303 0.072888002 0.86102003
0.1938 0.072843 0.86048001
0.19481 0.072888002 0.86102003
0.19595 0.072977997 0.86207998
0.19672 0.072933003 0.86154997
0.19786 0.073022999 0.86262
0.19888 0.073068999 0.86316001
0.19977 0.073068999 0.86316001
0.20067 0.073068999 0.86316001
0.20169 0.073114 0.86369002
0.20258 0.073114 0.86369002
0.20334999 0.073068999 0.86316001
0.2045 0.07316 0.86422998
0.2054 0.07316 0.86422998
0.20603999 0.073068999 0.86316001
0.20705999 0.073114 0.86369002
0.20807999 0.07316 0.86422998
0.20885 0.073114 0.86369002
0.20962 0.073068999 0.86316001
0.21051 0.073068999 0.86316001
0.21141 0.073068999 0.86316001
0.21217 0.073022999 0.86262
0.21292999 0.072977997 0.86207998
0.21396001 0.073022999 0.86262
0.21472 0.072977997 0.86207998
0.21561 0.072977997 0.86207998
0.21637 0.072933003 0.86154997
0.21727 0.072933003 0.86154997
0.21816 0.072933003 0.86154997
0.21905001 0.072933003 0.86154997
0.22008 0.072977997 0.86207998
0.22098 0.072977997 0.86207998
0.22187001 0.072977997 0.86207998
0.2229 0.073022999 0.86262
0.22394 0.073068999 0.86316001
0.22469001 0.073022999 0.86262
0.22573 0.073068999 0.86316001
0.22676 0.073114 0.86369002
0.22766 0.073114 0.86369002
0.22855 0.073114 0.86369002
0.22945 0.073114 0.86369002
0.23035 0.073114 0.86369002
0.23124 0.073114 0.86369002
0.23228 0.07316 0.86422998
0.23318 0.07316 0.86422998
0.23393001 0.073114 0.86369002
0.23468 0.073068999 0.86316001
0.23557 0.073068999 0.86316001
0.23647 0.073068999 0.86316001
0.23722 0.073022999 0.86262
0.23811001 0.073022999 0.86262
0.23899999 0.073022999 0.86262
0.23975 0.072977997 0.86207998
0.24064 0.072977997 0.86207998
0.24154 0.072977997 0.86207998
0.24243 0.072977997 0.86207998
0.24333 0.072977997 0.86207998
0.24422 0.072977997 0.86207998
0.24511001 0.072977997 0.86207998
0.24601001 0.072977997 0.86207998
0.24690001 0.072977997 0.86207998
0.24795 0.073022999 0.86262
0.24868999 0.072977997 0.86207998
0.24974 0.073022999 0.86262
0.25062999 0.073022999 0.86262
0.25152999 0.073022999 0.86262
0.25257999 0.073068999 0.86316001
0.25347 0.073068999 0.86316001
0.25468001 0.07316 0.86422998
0.25542 0.073114 0.86369002
0.25632 0.073114 0.86369002
0.25720999 0.073114 0.86369002
0.25827 0.07316 0.86422998
0.25917 0.07316 0.86422998
0.26006001 0.07316 0.86422998
0.26063001 0.073068999 0.86316001
0.26137 0.073022999 0.86262
0.26242 0.073068999 0.86316001
0.26315999 0.073022999 0.86262
0.26389 0.072977997 0.86207998
0.26478001 0.072977997 0.86207998
0.26567 0.072977997 0.86207998
0.26673001 0.073022999 0.86262
0.26745999 0.072977997 0.86207998
0.26835999 0.072977997 0.86207998
0.26942 0.073022999 0.86262
0.27031001 0.073022999 0.86262
0.27136999 0.073068999 0.86316001
0.27243999 0.073114 0.86369002
0.27316001 0.073068999 0.86316001
0.27406001 0.073068999 0.86316001
0.27513 0.073114 0.86369002
0.27601999 0.073114 0.86369002
0.27691999 0.073114 0.86369002
-0.16044 0.072921999 0.85100001
-0.15955 0.072921999 0.85100001
-0.15866999 0.072921999 0.85100001
-0.15787999 0.072967 0.85152
-0.15691 0.072921999 0.85100001
-0.15612 0.072967 0.85152
-0.15524 0.072967 0.85152
-0.15445 0.073011003 0.85203999
-0.15346999 0.072967 0.85152
-0.15267999 0.073011003 0.85203999
-0.15180001 0.073011003 0.85203999
-0.15091 0.073011003 0.85203999
-0.15012001 0.073055997 0.85255998
-0.14924 0.073055997 0.85255998
-0.14835 0.073055997 0.85255998
-0.14747 0.073055997 0.85255998
-0.14658999 0.073055997 0.85255998
-0.14561 0.073011003 0.85203999
-0.14464 0.072967 0.85152
-0.14385 0.073011003 0.85203999
-0.14296 0.073011003 0.85203999
-0.14199001 0.072967 0.85152
-0.14102 0.072921999 0.85100001
-0.14023 0.072967 0.85152
-0.13925999 0.072921999 0.85100001
-0.13829 0.072876997 0.85048002
-0.13741 0.072876997 0.85048002
-0.13643999 0.072833002 0.84996003
-0.13556001 0.072833002 0.84996003
-0.13476001 0.072876997 0.85048002
-0.1338 0.072833002 0.84996003
-0.13292 0.072833002 0.84996003
-0.13212 0.072876997 0.85048002
-0.13123 0.072876997 0.85048002
-0.13027 0.072833002 0.84996003
-0.12939 0.072833002 0.84996003
-0.12859 0.072876997 0.85048002
-0.12763 0.072833002 0.84996003
-0.12675001 0.072833002 0.84996003
-0.12602 0.072921999 0.85100001
-0.12514 0.072921999 0.85100001
-0.12441 0.073011003 0.85203999
-0.1236 0.073055997 0.85255998
-0.12272 0.073055997 0.85255998
-0.12176 0.073011003 0.85203999
-0.12095 0.073055997 0.85255998
-0.12006 0.073055997 0.85255998
-0.11911 0.073011003 0.85203999
-0.11822 0.073011003 0.85203999
-0.11741 0.073055997 0.85255998
-0.11653 0.073055997 0.85255998
-0.11564 0.073055997 0.85255998
-0.11476 0.073055997 0.85255998
-0.11381 0.073011003 0.85203999
-0.11292 0.073011003 0.85203999
-0.11204 0.073011003 0.85203999
-0.11109 0.072967 0.85152
-0.1102 0.072967 0.85152
-0.10932 0.072967 0.85152
-0.10844 0.072967 0.85152
-0.10762 0.073011003 0.85203999
-0.10667 0.072967 0.85152
-0.10592 0.073055997 0.85255998
-0.10503 0.073055997 0.85255998
-0.10415 0.073055997 0.85255998
-0.10327 0.073055997 0.85255998
-0.10238 0.073055997 0.85255998
-0.10156 0.073100999 0.85308999
-0.10074 0.073146001 0.85360998
-0.099852003 0.073146001 0.85360998
-0.098967001 0.073146001 0.85360998
-0.098081999 0.073146001 0.85360998
-0.095367998 0.073100999 0.85308999
-0.094540998 0.073146001 0.85360998
-0.093656003 0.073146001 0.85360998
-0.092713997 0.073100999 0.85308999
-0.091885999 0.073146001 0.85360998
-0.090888999 0.073055997 0.85255998
-0.089950003 0.073011003 0.85203999
-0.089120999 0.073055997 0.85255998
-0.088183001 0.073011003 0.85203999
-0.087298997 0.073011003 0.85203999
-0.086415999 0.073011003 0.85203999
-0.085584998 0.073055997 0.85255998
-0.084648997 0.073011003 0.85203999
-0.083815999 0.073055997 0.85255998
-0.082831003 0.072967 0.85152
-0.082047999 0.073055997 0.85255998
-0.081114002 0.073011003 0.85203999
-0.080231003 0.073011003 0.85203999
-0.079396002 0.073055997 0.85255998
-0.078560002 0.073100999 0.85308999
-0.077628002 0.073055997 0.85255998
-0.076838002 0.073146001 0.85360998
-0.075999998 0.073191002 0.85413998
-0.075113997 0.073191002 0.85413998
-0.074183002 0.073146001 0.85360998
-0.073298 0.073146001 0.85360998
-0.072368003 0.073100999 0.85308999
-0.071571 0.073191002 0.85413998
-0.070729002 0.073236004 0.85465997
-0.069885999 0.073280998 0.85518998
-0.068914004 0.073191002 0.85413998
-0.068070002 0.073236004 0.85465997
-0.067184001 0.073236004 0.85465997
-0.066215999 0.073146001 0.85360998
-0.065330997 0.073146001 0.85360998
-0.064485997 0.073191002 0.85413998
-0.063600004 0.073191002 0.85413998
-0.062675998 0.073146001 0.85360998
-0.061790001 0.073146001 0.85360998
-0.060904998 0.073146001 0.85360998
-0.06002 0.073146001 0.85360998
-0.059099 0.073100999 0.85308999
-0.058214001 0.073100999 0.85308999
-0.057328999 0.073100999 0.85308999
-0.05641 0.073055997 0.85255998
-0.055526 0.073055997 0.85255998
-0.054641999 0.073055997 0.85255998
-0.053757999 0.073055997 0.85255998
-0.052905999 0.073100999 0.85308999
-0.051989999 0.073055997 0.85255998
-0.051105998 0.073055997 0.85255998
-0.050191 0.073011003 0.85203999
-0.049368002 0.073100999 0.85308999
-0.048482999 0.073100999 0.85308999
-0.047598999 0.073100999 0.85308999
-0.046714 0.073100999 0.85308999
-0.045857999 0.073146001 0.85360998
-0.044971999 0.073146001 0.85360998
-0.044114001 0.073191002 0.85413998
-0.043228999 0.073191002 0.85413998
-0.042343002 0.073191002 0.85413998
-0.041457001 0.073191002 0.85413998
-0.040571999 0.073191002 0.85413998
-0.039686002 0.073191002 0.85413998
-0.038823999 0.073236004 0.85465997
-0.037937999 0.073236004 0.85465997
-0.037097 0.073325999 0.85571003
-0.036164999 0.073236004 0.85465997
-0.035321999 0.073325999 0.85571003
-0.034435 0.073325999 0.85571003
-0.033548001 0.073325999 0.85571003
-0.03266 0.073325999 0.85571003
-0.031773001 0.073325999 0.85571003
-0.030848 0.073236004 0.85465997
-0.029960999 0.073236004 0.85465997
-0.029057 0.073191002 0.85413998
-0.028171999 0.073191002 0.85413998
-0.027286001 0.073191002 0.85413998
-0.026416 0.073236004 0.85465997
-0.025529999 0.073236004 0.85465997
-0.024644 0.073236004 0.85465997
-0.023786999 0.073325999 0.85571003
-0.022886001 0.073280998 0.85518998
-0.022012001 0.073325999 0.85571003
-0.021125 0.073325999 0.85571003
-0.020238001 0.073325999 0.85571003
-0.019362001 0.073371001 0.85623997
-0.018486001 0.073417 0.85676998
-0.017608 0.073462002 0.85729998
-0.016719 0.073462002 0.85729998
-0.01584 0.073507003 0.85782999
-0.01496 0.073553003 0.85835999
-0.01407 0.073553003 0.85835999
-0.01318 0.073553003 0.85835999
-0.012289 0.073553003 0.85835999
-0.011392 0.073507003 0.85782999
-0.010503 0.073507003 0.85782999
-0.0096191997 0.073553003 0.85835999
-0.0087237004 0.073507003 0.85782999
-0.0078341998 0.073507003 0.85782999
-0.0069447001 0.073507003 0.85782999
-0.0060550999 0.073507003 0.85782999
-0.0051656002 0.073507003 0.85782999
-0.0042786999 0.073553003 0.85835999
-0.0033865001 0.073507003 0.85782999
-0.0024955 0.073462002 0.85729998
0.15721001 0.073734999 0.86048001
0.1582 0.07378 0.86102003
0.15899999 0.073734999 0.86048001
0.15978999 0.073688999 0.85995001
0.16068 0.073688999 0.85995001
0.16168 0.073734999 0.86048001
0.16247 0.073688999 0.85995001
0.16336 0.073688999 0.85995001
0.16435 0.073734999 0.86048001
0.16514 0.073688999 0.85995001
0.16614 0.073734999 0.86048001
0.16703001 0.073734999 0.86048001
0.16782001 0.073688999 0.85995001
0.16870999 0.073688999 0.85995001
0.16971 0.073734999 0.86048001
0.1706 0.073734999 0.86048001
0.17149 0.073734999 0.86048001
0.17238 0.073734999 0.86048001
0.17328 0.073734999 0.86048001
0.17428 0.07378 0.86102003
0.17506 0.073734999 0.86048001
0.17606001 0.07378 0.86102003
0.17694999 0.07378 0.86102003
0.17784999 0.07378 0.86102003
0.17885 0.073826 0.86154997
0.17963 0.07378 0.86102003
0.18053 0.07378 0.86102003
0.18131 0.073734999 0.86048001
0.1822 0.073734999 0.86048001
0.18309 0.073734999 0.86048001
0.18398 0.073734999 0.86048001
0.18565001 0.073688999 0.85995001
0.18666001 0.073734999 0.86048001
0.18743999 0.073688999 0.85995001
0.18832999 0.073688999 0.85995001
0.18922 0.073688999 0.85995001
0.18999 0.073643997 0.85942
0.19088 0.073643997 0.85942
0.19189 0.073688999 0.85995001
0.19279 0.073688999 0.85995001
0.19356 0.073643997 0.85942
0.19457 0.073688999 0.85995001
0.1957 0.07378 0.86102003
0.19647001 0.073734999 0.86048001
0.19749001 0.07378 0.86102003
0.19863001 0.073872 0.86207998
0.19952001 0.073872 0.86207998
0.20042001 0.073872 0.86207998
0.20130999 0.073872 0.86207998
0.20232999 0.073918 0.86262
0.2031 0.073872 0.86207998
0.20412 0.073918 0.86262
0.20513999 0.073964 0.86316001
0.20578 0.073872 0.86207998
0.20667 0.073872 0.86207998
0.2077 0.073918 0.86262
0.20846 0.073872 0.86207998
0.20923001 0.073826 0.86154997
0.21012001 0.073826 0.86154997
0.21100999 0.073826 0.86154997
0.21190999 0.073826 0.86154997
0.21267 0.07378 0.86102003
0.21356 0.07378 0.86102003
0.21445 0.07378 0.86102003
0.21521001 0.073734999 0.86048001
0.21611001 0.073734999 0.86048001
0.21699999 0.073734999 0.86048001
0.21775 0.073688999 0.85995001
0.21878 0.073734999 0.86048001
0.21980999 0.07378 0.86102003
0.2207 0.07378 0.86102003
0.2216 0.07378 0.86102003
0.22249 0.07378 0.86102003
0.22352 0.073826 0.86154997
0.22427 0.07378 0.86102003
0.22531 0.073826 0.86154997
0.22634 0.073872 0.86207998
0.22723 0.073872 0.86207998
0.22813 0.073872 0.86207998
0.22916 0.073918 0.86262
0.23006 0.073918 0.86262
0.23081 0.073872 0.86207998
0.23185 0.073918 0.86262
0.23274 0.073918 0.86262
0.23349001 0.073872 0.86207998
0.23439001 0.073872 0.86207998
0.23528001 0.073872 0.86207998
0.23616999 0.073872 0.86207998
0.23692 0.073826 0.86154997
0.23796 0.073872 0.86207998
0.23871 0.073826 0.86154997
0.23944999 0.07378 0.86102003
0.24034999 0.07378 0.86102003
0.24123999 0.07378 0.86102003
0.24213 0.07378 0.86102003
0.24302 0.07378 0.86102003
0.24392 0.07378 0.86102003
0.24481 0.07378 0.86102003
0.2457 0.07378 0.86102003
0.2466 0.07378 0.86102003
0.24764 0.073826 0.86154997
0.24838001 0.07378 0.86102003
0.24927001 0.07378 0.86102003
0.25031999 0.073826 0.86154997
0.25106001 0.07378 0.86102003
0.25195 0.07378 0.86102003
0.25299999 0.073826 0.86154997
0.25404999 0.073872 0.86207998
0.25479001 0.073826 0.86154997
0.25551999 0.07378 0.86102003
0.25658 0.073826 0.86154997
0.25747001 0.073826 0.86154997
0.25836 0.073826 0.86154997
0.25926 0.073826 0.86154997
0.25999001 0.07378 0.86102003
0.26072001 0.073734999 0.86048001
0.26161 0.073734999 0.86048001
0.26249999 0.073734999 0.86048001
0.26323 0.073688999 0.85995001
0.26412001 0.073688999 0.85995001
0.26517999 0.073734999 0.86048001
0.26607001 0.073734999 0.86048001
0.26697001 0.073734999 0.86048001
0.26802 0.07378 0.86102003
0.26908001 0.073826 0.86154997
0.26998001 0.073826 0.86154997
0.27087 0.073826 0.86154997
0.27193001 0.073872 0.86207998
0.27283001 0.073872 0.86207998
0.27372 0.073872 0.86207998
0.27478001 0.073918 0.86262
0.27551001 0.073872 0.86207998
0.27656999 0.073918 0.86262
-0.16023999 0.073714003 0.84996003
-0.15926 0.073669001 0.84943998
-0.15838 0.073669001 0.84943998
-0.1576 0.073714003 0.84996003
-0.15662 0.073669001 0.84943998
-0.15583 0.073714003 0.84996003
-0.15494999 0.073714003 0.84996003
-0.15415999 0.073758997 0.85048002
-0.15328 0.073758997 0.85048002
-0.1524 0.073758997 0.85048002
-0.15152 0.073758997 0.85048002
-0.15064 0.073758997 0.85048002
-0.14985 0.073803999 0.85100001
-0.14895999 0.073803999 0.85100001
-0.14808001 0.073803999 0.85100001
-0.1472 0.073803999 0.85100001
-0.14641 0.073849998 0.85152
-0.14543 0.073803999 0.85100001
-0.14445999 0.073758997 0.85048002
-0.14366999 0.073803999 0.85100001
-0.14279 0.073803999 0.85100001
-0.14173 0.073714003 0.84996003
-0.14084999 0.073714003 0.84996003
-0.13997 0.073714003 0.84996003
-0.139 0.073669001 0.84943998
-0.13812 0.073669001 0.84943998
-0.13723999 0.073669001 0.84943998
-0.13628 0.073624 0.84891999
-0.13530999 0.073578998 0.8484
-0.13451999 0.073624 0.84891999
-0.13355 0.073578998 0.8484
-0.13275 0.073624 0.84891999
-0.13195001 0.073669001 0.84943998
-0.13107 0.073669001 0.84943998
-0.13011 0.073624 0.84891999
-0.12915 0.073578998 0.8484
-0.12835 0.073624 0.84891999
-0.12747 0.073624 0.84891999
-0.12659 0.073624 0.84891999
-0.12579 0.073669001 0.84943998
-0.12498 0.073714003 0.84996003
-0.12418 0.073758997 0.85048002
-0.12337 0.073803999 0.85100001
-0.12257 0.073849998 0.85152
-0.12161 0.073803999 0.85100001
-0.12073 0.073803999 0.85100001
-0.11992 0.073849998 0.85152
-0.11889 0.073758997 0.85048002
-0.11808 0.073803999 0.85100001
-0.1172 0.073803999 0.85100001
-0.11638 0.073849998 0.85152
-0.1155 0.073849998 0.85152
-0.11455 0.073803999 0.85100001
-0.11367 0.073803999 0.85100001
-0.11278 0.073803999 0.85100001
-0.1119 0.073803999 0.85100001
-0.11095 0.073758997 0.85048002
-0.11014 0.073803999 0.85100001
-0.10919 0.073758997 0.85048002
-0.10837 0.073803999 0.85100001
-0.10749 0.073803999 0.85100001
-0.10661 0.073803999 0.85100001
-0.10579 0.073849998 0.85152
-0.10491 0.073849998 0.85152
-0.10402 0.073849998 0.85152
-0.10314 0.073849998 0.85152
-0.10226 0.073849998 0.85152
-0.10144 0.073895 0.85203999
-0.10061 0.073940001 0.85255998
-0.099669002 0.073895 0.85203999
-0.098846003 0.073940001 0.85255998
-0.097961999 0.073940001 0.85255998
-0.095251001 0.073895 0.85203999
-0.094425 0.073940001 0.85255998
-0.093540996 0.073940001 0.85255998
-0.092600003 0.073895 0.85203999
-0.091716997 0.073895 0.85203999
-0.090778001 0.073849998 0.85152
-0.089840002 0.073803999 0.85100001
-0.089011997 0.073849998 0.85152
-0.088074997 0.073803999 0.85100001
-0.087191999 0.073803999 0.85100001
-0.086309999 0.073803999 0.85100001
-0.085479997 0.073849998 0.85152
-0.084545001 0.073803999 0.85100001
-0.083662003 0.073803999 0.85100001
-0.082679003 0.073714003 0.84996003
-0.081897996 0.073803999 0.85100001
-0.081014998 0.073803999 0.85100001
-0.080132999 0.073803999 0.85100001
-0.079299003 0.073849998 0.85152
-0.078415997 0.073849998 0.85152
-0.077532999 0.073849998 0.85152
-0.076650001 0.073849998 0.85152
-0.075767003 0.073849998 0.85152
-0.074883997 0.073849998 0.85152
-0.074000999 0.073849998 0.85152
-0.073118001 0.073849998 0.85152
-0.072191 0.073803999 0.85100001
-0.071396001 0.073895 0.85203999
-0.070511997 0.073895 0.85203999
-0.069714002 0.073986001 0.85308999
-0.068745002 0.073895 0.85203999
-0.067860998 0.073895 0.85203999
-0.067019001 0.073940001 0.85255998
-0.066054001 0.073849998 0.85152
-0.065210998 0.073895 0.85203999
-0.064366996 0.073940001 0.85255998
-0.063483 0.073940001 0.85255998
-0.062599003 0.073940001 0.85255998
-0.061714999 0.073940001 0.85255998
-0.060793001 0.073895 0.85203999
-0.059946001 0.073940001 0.85255998
-0.059025999 0.073895 0.85203999
-0.058143001 0.073895 0.85203999
-0.057259001 0.073895 0.85203999
-0.056341 0.073849998 0.85152
-0.055458002 0.073849998 0.85152
-0.054575 0.073849998 0.85152
-0.053692002 0.073849998 0.85152
-0.052809 0.073849998 0.85152
-0.051925998 0.073849998 0.85152
-0.051043 0.073849998 0.85152
-0.050129 0.073803999 0.85100001
-0.049307 0.073895 0.85203999
-0.048424002 0.073895 0.85203999
-0.047568999 0.073940001 0.85255998
-0.046657 0.073895 0.85203999
-0.045800999 0.073940001 0.85255998
-0.044916999 0.073940001 0.85255998
-0.044059999 0.073986001 0.85308999
-0.043175999 0.073986001 0.85308999
-0.042291 0.073986001 0.85308999
-0.041405998 0.073986001 0.85308999
-0.040522002 0.073986001 0.85308999
-0.039636999 0.073986001 0.85308999
-0.038775999 0.074031003 0.85360998
-0.037891001 0.074031003 0.85360998
-0.037051 0.074121997 0.85465997
-0.036121 0.074031003 0.85360998
-0.035278998 0.074121997 0.85465997
-0.034393001 0.074121997 0.85465997
-0.033505999 0.074121997 0.85465997
-0.032620002 0.074121997 0.85465997
-0.031734001 0.074121997 0.85465997
-0.03081 0.074031003 0.85360998
-0.029925 0.074031003 0.85360998
-0.029022001 0.073986001 0.85308999
-0.028137 0.073986001 0.85308999
-0.027252 0.073986001 0.85308999
-0.026384 0.074031003 0.85360998
-0.025498999 0.074031003 0.85360998
-0.024614001 0.074031003 0.85360998
-0.023743 0.074077003 0.85413998
-0.022856999 0.074077003 0.85413998
-0.021972001 0.074077003 0.85413998
-0.021098999 0.074121997 0.85465997
-0.020213 0.074121997 0.85465997
-0.019327 0.074121997 0.85465997
-0.018452 0.074167997 0.85518998
-0.017586 0.074258998 0.85623997
-0.016698999 0.074258998 0.85623997
-0.01582 0.074304998 0.85676998
-0.014932 0.074304998 0.85676998
-0.014044 0.074304998 0.85676998
-0.013163 0.074350998 0.85729998
-0.012267 0.074304998 0.85676998
-0.011378 0.074304998 0.85676998
-0.010483 0.074258998 0.85623997
-0.0096014002 0.074304998 0.85676998
-0.0087075997 0.074258998 0.85623997
-0.0078245001 0.074304998 0.85676998
-0.0069317999 0.074258998 0.85623997
-0.0060438998 0.074258998 0.85623997
-0.0051560001 0.074258998 0.85623997
-0.0042707999 0.074304998 0.85676998
-0.0033803 0.074258998 0.85623997
0.15801001 0.074580997 0.85995001
0.15889999 0.074580997 0.85995001
0.15959001 0.074488997 0.85889
0.16049001 0.074488997 0.85889
0.16147999 0.074534997 0.85942
0.16226999 0.074488997 0.85889
0.16316 0.074488997 0.85889
0.16415 0.074534997 0.85942
0.16494 0.074488997 0.85889
0.16593 0.074534997 0.85942
0.16682 0.074534997 0.85942
0.16761 0.074488997 0.85889
0.16850001 0.074488997 0.85889
0.16949999 0.074534997 0.85942
0.17038999 0.074534997 0.85942
0.17128 0.074534997 0.85942
0.17217 0.074534997 0.85942
0.17306 0.074534997 0.85942
0.17584001 0.074580997 0.85995001
0.17684001 0.074626997 0.86048001
0.17773999 0.074626997 0.86048001
0.17862999 0.074626997 0.86048001
0.17952 0.074626997 0.86048001
0.1803 0.074580997 0.85995001
0.18554001 0.074534997 0.85942
0.18643001 0.074534997 0.85942
0.18719999 0.074488997 0.85889
0.18821 0.074534997 0.85942
0.18899 0.074488997 0.85889
0.18976 0.074442998 0.85835999
0.19065 0.074442998 0.85835999
0.19166 0.074488997 0.85889
0.19255 0.074488997 0.85889
0.19344001 0.074488997 0.85889
0.19433001 0.074488997 0.85889
0.19546001 0.074580997 0.85995001
0.19622999 0.074534997 0.85942
0.19724 0.074580997 0.85995001
0.19825999 0.074626997 0.86048001
0.19915 0.074626997 0.86048001
0.20004 0.074626997 0.86048001
0.20106 0.074672997 0.86102003
0.20195 0.074672997 0.86102003
0.20272 0.074626997 0.86048001
0.20387 0.074720003 0.86154997
0.20476 0.074720003 0.86154997
0.2054 0.074626997 0.86048001
0.20642 0.074672997 0.86102003
0.20744 0.074720003 0.86154997
0.20819999 0.074672997 0.86102003
0.20897 0.074626997 0.86048001
0.20973 0.074580997 0.85995001
0.21075 0.074626997 0.86048001
0.21151 0.074580997 0.85995001
0.21227001 0.074534997 0.85942
0.2133 0.074580997 0.85995001
0.21419001 0.074580997 0.85995001
0.21495 0.074534997 0.85942
0.21584 0.074534997 0.85942
0.21673 0.074534997 0.85942
0.21749 0.074488997 0.85889
0.21851 0.074534997 0.85942
0.21954 0.074580997 0.85995001
0.22029001 0.074534997 0.85942
0.22132 0.074580997 0.85995001
0.22221 0.074580997 0.85995001
0.22324 0.074626997 0.86048001
0.22400001 0.074580997 0.85995001
0.22503 0.074626997 0.86048001
0.22592001 0.074626997 0.86048001
0.22695 0.074672997 0.86102003
0.22785001 0.074672997 0.86102003
0.22874001 0.074672997 0.86102003
0.22977 0.074720003 0.86154997
0.23052 0.074672997 0.86102003
0.23156001 0.074720003 0.86154997
0.23244999 0.074720003 0.86154997
0.2332 0.074672997 0.86102003
0.2341 0.074672997 0.86102003
0.23513 0.074720003 0.86154997
0.23588 0.074672997 0.86102003
0.23662999 0.074626997 0.86048001
0.23767 0.074672997 0.86102003
0.23856001 0.074672997 0.86102003
0.2393 0.074626997 0.86048001
0.2402 0.074626997 0.86048001
0.24094 0.074580997 0.85995001
0.24198 0.074626997 0.86048001
0.24271999 0.074580997 0.85995001
0.24377 0.074626997 0.86048001
0.24450999 0.074580997 0.85995001
0.2454 0.074580997 0.85995001
0.24629 0.074580997 0.85995001
0.24733999 0.074626997 0.86048001
0.24807 0.074580997 0.85995001
0.24897 0.074580997 0.85995001
0.25001001 0.074626997 0.86048001
0.25075001 0.074580997 0.85995001
0.25163999 0.074580997 0.85995001
0.25253001 0.074580997 0.85995001
0.25358 0.074626997 0.86048001
0.25432 0.074580997 0.85995001
0.25505 0.074534997 0.85942
0.2561 0.074580997 0.85995001
0.25698999 0.074580997 0.85995001
0.25771999 0.074534997 0.85942
0.25876999 0.074580997 0.85995001
0.25951001 0.074534997 0.85942
0.26023999 0.074488997 0.85889
0.26097 0.074442998 0.85835999
0.26201999 0.074488997 0.85889
0.26275 0.074442998 0.85835999
0.26363999 0.074442998 0.85835999
0.26469001 0.074488997 0.85889
0.26574001 0.074534997 0.85942
0.26664001 0.074534997 0.85942
0.26752999 0.074534997 0.85942
0.26875001 0.074626997 0.86048001
0.26964 0.074626997 0.86048001
0.27070001 0.074672997 0.86102003
0.27158999 0.074672997 0.86102003
0.27248999 0.074672997 0.86102003
0.27338001 0.074672997 0.86102003
0.27443999 0.074720003 0.86154997
0.27517 0.074672997 0.86102003
0.27623001 0.074720003 0.86154997
-0.15995 0.074459001 0.8484
-0.15897 0.074414 0.84788001
-0.15809 0.074414 0.84788001
-0.15730999 0.074459001 0.8484
-0.15643001 0.074459001 0.8484
-0.15555 0.074459001 0.8484
-0.15467 0.074459001 0.8484
-0.15388 0.074504003 0.84891999
-0.153 0.074504003 0.84891999
-0.15211999 0.074504003 0.84891999
-0.15124001 0.074504003 0.84891999
-0.15036 0.074504003 0.84891999
-0.14957 0.074550003 0.84943998
-0.14869 0.074550003 0.84943998
-0.14781 0.074550003 0.84943998
-0.14692999 0.074550003 0.84943998
-0.14613999 0.074596003 0.84996003
-0.14517 0.074550003 0.84943998
-0.14410999 0.074459001 0.8484
-0.14341 0.074550003 0.84943998
-0.14252 0.074550003 0.84943998
-0.14156 0.074504003 0.84891999
-0.14059 0.074459001 0.8484
-0.13970999 0.074459001 0.8484
-0.13883001 0.074459001 0.8484
-0.13787 0.074414 0.84788001
-0.13699 0.074414 0.84788001
-0.13603 0.074368 0.84737003
-0.13515 0.074368 0.84737003
-0.13435 0.074414 0.84788001
-0.13338999 0.074368 0.84737003
-0.13251001 0.074368 0.84737003
-0.13170999 0.074414 0.84788001
-0.13083 0.074414 0.84788001
-0.12995 0.074414 0.84788001
-0.12899999 0.074368 0.84737003
-0.12819999 0.074414 0.84788001
-0.12732001 0.074414 0.84788001
-0.12644 0.074414 0.84788001
-0.12564 0.074459001 0.8484
-0.12483 0.074504003 0.84891999
-0.12403 0.074550003 0.84943998
-0.12322 0.074596003 0.84996003
-0.12234 0.074596003 0.84996003
-0.12138 0.074550003 0.84943998
-0.12058 0.074596003 0.84996003
-0.1197 0.074596003 0.84996003
-0.11874 0.074550003 0.84943998
-0.11793 0.074596003 0.84996003
-0.11705 0.074596003 0.84996003
-0.11617 0.074596003 0.84996003
-0.11529 0.074596003 0.84996003
-0.11441 0.074596003 0.84996003
-0.11353 0.074596003 0.84996003
-0.11265 0.074596003 0.84996003
-0.11176 0.074596003 0.84996003
-0.11088 0.074596003 0.84996003
-0.11 0.074596003 0.84996003
-0.10912 0.074596003 0.84996003
-0.10824 0.074596003 0.84996003
-0.10742 0.074640997 0.85048002
-0.10648 0.074596003 0.84996003
-0.10566 0.074640997 0.85048002
-0.10478 0.074640997 0.85048002
-0.1039 0.074640997 0.85048002
-0.10301 0.074640997 0.85048002
-0.10213 0.074640997 0.85048002
-0.10131 0.074686997 0.85100001
-0.10049 0.074732997 0.85152
-0.099546999 0.074686997 0.85100001
-0.098724999 0.074732997 0.85152
-0.097782001 0.074686997 0.85100001
-0.095133997 0.074686997 0.85100001
-0.094310001 0.074732997 0.85152
-0.093427002 0.074732997 0.85152
-0.092487 0.074686997 0.85100001
-0.091605 0.074686997 0.85100001
-0.090667002 0.074640997 0.85048002
-0.089730002 0.074596003 0.84996003
-0.088903002 0.074640997 0.85048002
-0.088021003 0.074640997 0.85048002
-0.087086 0.074596003 0.84996003
-0.086257003 0.074640997 0.85048002
-0.085375004 0.074640997 0.85048002
-0.084492996 0.074640997 0.85048002
-0.083610997 0.074640997 0.85048002
-0.082578003 0.074504003 0.84891999
-0.081796996 0.074596003 0.84996003
-0.080916002 0.074596003 0.84996003
-0.080035001 0.074596003 0.84996003
-0.079201996 0.074640997 0.85048002
-0.078319997 0.074640997 0.85048002
-0.077437997 0.074640997 0.85048002
-0.076555997 0.074640997 0.85048002
-0.075627998 0.074596003 0.84996003
-0.074700996 0.074550003 0.84943998
-0.073820002 0.074550003 0.84943998
-0.072939001 0.074550003 0.84943998
-0.072013997 0.074504003 0.84891999
-0.071221001 0.074596003 0.84996003
-0.07034 0.074596003 0.84996003
-0.069542997 0.074686997 0.85100001
-0.068576999 0.074596003 0.84996003
-0.067653999 0.074550003 0.84943998
-0.066813998 0.074596003 0.84996003
-0.065892003 0.074550003 0.84943998
-0.065090999 0.074640997 0.85048002
-0.064249001 0.074686997 0.85100001
-0.063405 0.074732997 0.85152
-0.062484 0.074686997 0.85100001
-0.061639 0.074732997 0.85152
-0.060718998 0.074686997 0.85100001
-0.059873 0.074732997 0.85152
-0.058954 0.074686997 0.85100001
-0.058070999 0.074686997 0.85100001
-0.057188999 0.074686997 0.85100001
-0.056272 0.074640997 0.85048002
-0.055424001 0.074686997 0.85100001
-0.054542001 0.074686997 0.85100001
-0.053626001 0.074640997 0.85048002
-0.052777 0.074686997 0.85100001
-0.051863 0.074640997 0.85048002
-0.051011998 0.074686997 0.85100001
-0.050067998 0.074596003 0.84996003
-0.049277 0.074732997 0.85152
-0.048363999 0.074686997 0.85100001
-0.047511 0.074732997 0.85152
-0.046627998 0.074732997 0.85152
-0.045745 0.074732997 0.85152
-0.044861998 0.074732997 0.85152
-0.043979 0.074732997 0.85152
-0.043122999 0.074778996 0.85203999
-0.042238999 0.074778996 0.85203999
-0.041356001 0.074778996 0.85203999
-0.040472001 0.074778996 0.85203999
-0.039563999 0.074732997 0.85152
-0.038729001 0.074823998 0.85255998
-0.037820999 0.074778996 0.85203999
-0.036982998 0.074869998 0.85308999
-0.036076002 0.074823998 0.85255998
-0.035213999 0.074869998 0.85308999
-0.034329001 0.074869998 0.85308999
-0.033445001 0.074869998 0.85308999
-0.032579999 0.074915998 0.85360998
-0.031695001 0.074915998 0.85360998
-0.030772001 0.074823998 0.85255998
-0.029905999 0.074869998 0.85308999
-0.029004 0.074823998 0.85255998
-0.02812 0.074823998 0.85255998
-0.027236 0.074823998 0.85255998
-0.026368 0.074869998 0.85308999
-0.025467999 0.074823998 0.85255998
-0.024584001 0.074823998 0.85255998
-0.023714 0.074869998 0.85308999
-0.022815 0.074823998 0.85255998
-0.021945 0.074869998 0.85308999
-0.021059999 0.074869998 0.85308999
-0.020176001 0.074869998 0.85308999
-0.019291 0.074869998 0.85308999
-0.018417999 0.074915998 0.85360998
-0.017554 0.075007997 0.85465997
-0.016667999 0.075007997 0.85465997
-0.015791001 0.075055003 0.85518998
-0.014914 0.075101003 0.85571003
-0.014018 0.075055003 0.85518998
-0.013139 0.075101003 0.85571003
-0.012244 0.075055003 0.85518998
-0.011357 0.075055003 0.85518998
-0.010464 0.075007997 0.85465997
-0.0095837004 0.075055003 0.85518998
-0.0086861998 0.074961998 0.85413998
-0.0078052999 0.075007997 0.85465997
-0.0069189998 0.075007997 0.85465997
-0.0060327998 0.075007997 0.85465997
-0.0051433998 0.074961998 0.85413998
-0.0042576999 0.074961998 0.85413998
0.15781 0.075378999 0.85889
0.1587 0.075378999 0.85889
0.1595 0.075332999 0.85835999
0.16039 0.075332999 0.85835999
0.16128001 0.075332999 0.85835999
0.16216999 0.075332999 0.85835999
0.16305999 0.075332999 0.85835999
0.16405 0.075378999 0.85889
0.16484 0.075332999 0.85835999
0.16573 0.075332999 0.85835999
0.16672 0.075378999 0.85889
0.1674 0.075286001 0.85782999
0.16829 0.075286001 0.85782999
0.16929001 0.075332999 0.85835999
0.17017999 0.075332999 0.85835999
0.17117 0.075378999 0.85889
0.17206 0.075378999 0.85889
0.17295 0.075378999 0.85889
0.17395 0.075425997 0.85942
0.17484 0.075425997 0.85942
0.17752001 0.075425997 0.85942
0.17851999 0.075473003 0.85995001
0.1793 0.075425997 0.85942
0.18019 0.075425997 0.85942
0.18108 0.075425997 0.85942
0.18186 0.075378999 0.85889
0.18286 0.075425997 0.85942
0.18364 0.075378999 0.85889
0.18442 0.075332999 0.85835999
0.18542001 0.075378999 0.85889
0.18630999 0.075378999 0.85889
0.18708999 0.075332999 0.85835999
0.18798 0.075332999 0.85835999
0.18875 0.075286001 0.85782999
0.18952 0.075240001 0.85729998
0.19041 0.075240001 0.85729998
0.1913 0.075240001 0.85729998
0.19231001 0.075286001 0.85782999
0.19320001 0.075286001 0.85782999
0.19408999 0.075286001 0.85782999
0.19509999 0.075332999 0.85835999
0.19599 0.075332999 0.85835999
0.19688 0.075332999 0.85835999
0.19801 0.075425997 0.85942
0.19878 0.075378999 0.85889
0.19967 0.075378999 0.85889
0.20069 0.075425997 0.85942
0.20158 0.075425997 0.85942
0.20247 0.075425997 0.85942
0.20349 0.075473003 0.85995001
0.20438001 0.075473003 0.85995001
0.20513999 0.075425997 0.85942
0.20603 0.075425997 0.85942
0.20705 0.075473003 0.85995001
